Tv2C	Sal2	Sbeox2PS	PrdE
4.5164	34.6138	7.19086	320.483
4.5164	34.614	7.19086	320.519
4.5165	34.6137	7.19085	320.584
4.5163	34.6142	7.19086	320.641
4.5164	34.6138	7.19087	320.696
4.5165	34.6142	7.19083	320.768
4.5165	34.6142	7.19082	320.827
4.5164	34.6136	7.19088	320.858
4.5162	34.614	7.19089	320.919
4.5163	34.6141	7.19086	320.974
4.5164	34.6137	7.19087	320.996
4.5169	34.6132	7.1908	321.067
4.5169	34.6136	7.19079	321.152
4.5173	34.6137	7.19071	321.212
4.5173	34.6139	7.19071	321.245
4.5174	34.6142	7.19067	321.293
4.5176	34.6142	7.19064	321.358
4.5178	34.614	7.19062	321.423
4.5173	34.6145	7.19067	321.483
4.5174	34.6136	7.19071	321.546
4.5171	34.6144	7.19071	321.574
4.5174	34.6141	7.19068	321.647
4.5175	34.6144	7.19065	321.693
4.5175	34.6141	7.19066	321.755
4.5176	34.6146	7.19062	321.817
4.5175	34.6149	7.19062	321.884
4.5177	34.6147	7.1906	321.924
4.5178	34.6139	7.19062	321.982
4.5178	34.6139	7.19061	322.032
4.5181	34.6136	7.19058	322.122
4.5181	34.6141	7.19056	322.161
4.5185	34.6141	7.19048	322.213
4.5186	34.6145	7.19045	322.282
4.5188	34.6139	7.19043	322.329
4.519	34.6141	7.1904	322.378
4.5191	34.6142	7.19037	322.423
4.5195	34.6145	7.1903	322.472
4.5195	34.6142	7.19031	322.539
4.5203	34.6139	7.19018	322.581
4.5198	34.6152	7.1902	322.678
4.5196	34.6153	7.19024	322.741
4.5194	34.6149	7.19028	322.767
4.5199	34.6145	7.19021	322.839
4.5205	34.6136	7.19015	322.904
4.521	34.6138	7.19006	322.934
4.5211	34.6147	7.19	322.986
4.5211	34.6155	7.18996	323.074
4.5212	34.6151	7.18996	323.101
4.5212	34.6153	7.18996	323.162
4.521	34.6159	7.18997	323.231
4.5208	34.6154	7.19003	323.273
4.5206	34.6155	7.19005	323.337
4.5204	34.6154	7.19008	323.394
4.5207	34.6151	7.19005	323.453
4.5208	34.6152	7.19003	323.497
4.5209	34.6148	7.19002	323.57
4.5211	34.6148	7.18999	323.59
4.5211	34.615	7.18998	323.695
4.5212	34.6154	7.18995	323.725
4.5213	34.615	7.18995	323.773
4.5213	34.6151	7.18995	323.86
4.5213	34.6152	7.18993	323.909
4.5214	34.6155	7.18991	323.952
4.5211	34.6157	7.18996	323.999
4.5212	34.6154	7.18996	324.074
4.5212	34.615	7.18997	324.143
4.5211	34.6154	7.18996	324.191
4.5213	34.6155	7.18993	324.253
4.5208	34.6153	7.19002	324.297
4.5209	34.6152	7.19001	324.378
4.5211	34.6153	7.18998	324.417
4.521	34.6151	7.19001	324.499
4.5211	34.6153	7.18998	324.558
4.5209	34.6155	7.18999	324.592
4.5208	34.6154	7.19001	324.644
4.5208	34.6159	7.18998	324.696
4.5208	34.6158	7.19001	324.773
4.5209	34.6158	7.18998	324.834
4.5211	34.6153	7.18997	324.875
4.521	34.6155	7.18998	324.927
4.5212	34.6151	7.18997	324.974
4.521	34.6158	7.18996	325.061
4.521	34.6157	7.18997	325.137
4.5211	34.6152	7.18998	325.186
4.5211	34.6151	7.18998	325.256
4.5212	34.6158	7.18993	325.292
4.5211	34.6154	7.18996	325.337
4.5211	34.6156	7.18996	325.385
4.5209	34.6156	7.18999	325.459
4.5211	34.6156	7.18995	325.507
4.5211	34.6153	7.18996	325.608
4.5213	34.6155	7.18993	325.631
4.5212	34.6155	7.18994	325.7
4.5212	34.6155	7.18993	325.728
4.5213	34.6155	7.18992	325.783
4.5213	34.6156	7.18993	325.851
4.5214	34.6153	7.18993	325.901
4.5212	34.616	7.18991	325.955
4.5212	34.6158	7.18993	326.027
4.5212	34.6156	7.18993	326.054
4.5212	34.6155	7.18994	326.131
4.5213	34.6153	7.18993	326.199
4.5214	34.6153	7.18991	326.25
4.5212	34.6158	7.18993	326.282
4.5214	34.6154	7.18991	326.35
4.5212	34.6156	7.18994	326.405
4.5209	34.616	7.18997	326.485
4.5206	34.616	7.19003	326.543
4.5207	34.6159	7.19002	326.586
4.5206	34.6161	7.19002	326.626
4.5207	34.6157	7.19002	326.681
4.5207	34.6156	7.19002	326.764
4.5208	34.6155	7.19001	326.821
4.5209	34.6154	7.19	326.879
4.5209	34.6156	7.18999	326.923
4.5208	34.6156	7.19001	326.992
4.5204	34.6164	7.19005	327.041
4.5207	34.6158	7.19002	327.088
4.5207	34.6161	7.19001	327.138
4.5205	34.6164	7.19003	327.207
4.5205	34.6162	7.19004	327.26
4.5205	34.616	7.19005	327.313
4.5206	34.6161	7.19003	327.376
4.5205	34.6158	7.19006	327.43
4.5206	34.6157	7.19005	327.502
4.5209	34.6152	7.19001	327.555
4.521	34.6156	7.18998	327.615
4.5211	34.6161	7.18992	327.661
4.5213	34.6162	7.18989	327.684
4.5213	34.6159	7.18991	327.781
4.5214	34.6159	7.18989	327.799
4.5214	34.6158	7.1899	327.874
4.5217	34.6157	7.18985	327.929
4.5219	34.6161	7.1898	327.984
4.522	34.6162	7.18976	328.073
4.5222	34.6164	7.18972	328.084
4.5226	34.6158	7.18968	328.147
4.5225	34.6163	7.18967	328.216
4.523	34.6156	7.18963	328.245
4.523	34.616	7.18961	328.307
4.5227	34.6167	7.18963	328.378
4.5229	34.6164	7.1896	328.422
4.5229	34.6164	7.1896	328.465
4.523	34.6167	7.18957	328.54
4.523	34.6164	7.18959	328.602
4.523	34.617	7.18955	328.661
4.5231	34.6166	7.18955	328.688
4.5231	34.6164	7.18957	328.751
4.5231	34.617	7.18955	328.808
4.5231	34.617	7.18953	328.856
4.5232	34.6162	7.18956	328.904
4.5235	34.6164	7.18949	328.975
4.5237	34.616	7.18949	329.031
4.5244	34.6158	7.18938	329.082
4.5243	34.6165	7.18935	329.148
4.5245	34.6166	7.18931	329.194
4.525	34.6166	7.18923	329.221
4.5255	34.6163	7.18916	329.296
4.5257	34.617	7.18909	329.352
4.5258	34.6172	7.18906	329.388
4.5259	34.6173	7.18903	329.475
4.5258	34.6172	7.18905	329.53
4.5261	34.6171	7.189	329.587
4.5261	34.6172	7.189	329.639
4.5263	34.6171	7.18897	329.695
4.5268	34.6169	7.18889	329.753
4.5268	34.6175	7.18887	329.776
4.5268	34.6181	7.18883	329.842
4.5271	34.6174	7.18882	329.89
4.5271	34.618	7.18879	329.928
4.5271	34.6181	7.18879	329.99
4.5272	34.6182	7.18877	330.059
4.527	34.6184	7.18879	330.086
4.5274	34.618	7.18874	330.17
4.5271	34.6186	7.18877	330.228
4.5272	34.6183	7.18877	330.281
4.5273	34.6183	7.18874	330.327
4.5274	34.6182	7.18873	330.388
4.5273	34.6184	7.18875	330.458
4.5273	34.6183	7.18874	330.475
4.5272	34.6186	7.18874	330.544
4.5273	34.6184	7.18874	330.597
4.5273	34.6186	7.18873	330.66
4.5275	34.6186	7.18869	330.703
4.5274	34.6187	7.18871	330.745
4.5275	34.6185	7.18871	330.8
4.5273	34.6186	7.18873	330.86
4.5274	34.6178	7.18876	330.928
4.5273	34.6185	7.18873	330.973
4.5275	34.6186	7.18869	331.025
4.5278	34.6178	7.18868	331.077
4.5279	34.6183	7.18864	331.137
4.5281	34.6185	7.1886	331.183
4.5283	34.6189	7.18854	331.244
4.5281	34.619	7.18858	331.322
4.528	34.6192	7.18859	331.345
4.5279	34.6191	7.1886	331.403
4.5281	34.6188	7.18858	331.455
4.5279	34.6189	7.18861	331.485
4.5279	34.6191	7.1886	331.556
4.5282	34.6183	7.18858	331.62
4.5281	34.6194	7.18856	331.678
4.5284	34.6187	7.18854	331.718
4.5285	34.619	7.18849	331.786
4.5286	34.619	7.18848	331.791
4.5287	34.6188	7.18847	331.88
4.5288	34.6191	7.18845	331.943
4.5286	34.6195	7.18846	331.98
4.5287	34.6193	7.18845	332.016
4.5287	34.6191	7.18846	332.089
4.5289	34.6191	7.18843	332.144
4.5288	34.6193	7.18843	332.182
4.5288	34.6195	7.18842	332.251
4.5289	34.6189	7.18844	332.313
4.5289	34.6191	7.18842	332.369
4.5287	34.6195	7.18843	332.395
4.5289	34.6193	7.18841	332.446
4.5289	34.6196	7.18841	332.497
4.5291	34.6196	7.18837	332.561
4.5289	34.6194	7.18842	332.587
4.5291	34.6191	7.1884	332.66
4.5289	34.6194	7.18841	332.739
4.5289	34.6194	7.18841	332.777
4.529	34.6197	7.18837	332.828
4.529	34.6192	7.1884	332.878
4.5289	34.6195	7.1884	332.919
4.5289	34.6196	7.1884	332.985
4.5291	34.6196	7.18837	333.026
4.529	34.6195	7.18839	333.087
4.5291	34.6194	7.18838	333.12
4.5292	34.6196	7.18835	333.184
4.5293	34.6196	7.18834	333.251
4.5292	34.6194	7.18836	333.299
4.5293	34.6197	7.18833	333.354
4.5292	34.6195	7.18835	333.417
4.5293	34.6192	7.18835	333.447
4.5293	34.6196	7.18832	333.507
4.5296	34.6198	7.18827	333.562
4.5296	34.6193	7.18829	333.618
4.5295	34.6196	7.18829	333.639
4.5297	34.6199	7.18825	333.718
4.5297	34.6193	7.18827	333.769
4.5297	34.6197	7.18826	333.81
4.5296	34.6194	7.18828	333.871
4.5298	34.62	7.18822	333.916
4.5299	34.6195	7.18823	333.966
4.5298	34.6196	7.18825	334.036
4.53	34.6195	7.18822	334.084
4.5302	34.6198	7.18816	334.139
4.53	34.6198	7.1882	334.201
4.5298	34.6202	7.18822	334.237
4.5298	34.6199	7.18823	334.305
4.5298	34.6199	7.18823	334.352
4.53	34.6197	7.1882	334.384
4.53	34.6199	7.18819	334.455
4.5299	34.62	7.1882	334.491
4.5301	34.6202	7.18816	334.546
4.5297	34.6203	7.18822	334.622
4.5297	34.6195	7.18826	334.664
4.5299	34.6202	7.18821	334.73
4.5297	34.62	7.18824	334.773
4.5298	34.6202	7.18821	334.827
4.5298	34.62	7.18822	334.885
4.5298	34.6199	7.18822	334.937
4.5299	34.6202	7.18819	334.969
4.5299	34.6198	7.18821	335.036
4.5299	34.6199	7.18822	335.09
4.53	34.6196	7.18822	335.124
4.53	34.6198	7.1882	335.175
4.5298	34.6204	7.1882	335.239
4.53	34.6202	7.18819	335.266
4.5299	34.6202	7.1882	335.336
4.5301	34.6199	7.18818	335.4
4.5302	34.6194	7.18819	335.434
4.5303	34.62	7.18815	335.483
4.5305	34.6198	7.18812	335.526
4.5301	34.6208	7.18813	335.586
4.5302	34.6201	7.18816	335.635
4.5301	34.6197	7.18818	335.691
4.5302	34.6195	7.18819	335.748
4.5304	34.6199	7.18812	335.812
4.5304	34.6202	7.18811	335.861
4.5306	34.6205	7.18807	335.923
4.5304	34.6209	7.18809	335.977
4.5304	34.6205	7.18811	336.034
4.5304	34.6199	7.18813	336.058
4.5305	34.6203	7.18809	336.109
4.5305	34.6203	7.18808	336.161
4.5306	34.6201	7.18809	336.204
4.5304	34.6202	7.1881	336.264
4.5306	34.6199	7.1881	336.322
4.5306	34.6204	7.18808	336.379
4.5306	34.621	7.18805	336.414
4.5306	34.6205	7.18806	336.518
4.5306	34.6199	7.18809	336.545
4.5309	34.6201	7.18802	336.589
4.5308	34.6202	7.18804	336.64
4.531	34.6209	7.18798	336.709
4.531	34.6201	7.18801	336.765
4.5308	34.6206	7.18803	336.808
4.5309	34.62	7.18803	336.846
4.5307	34.6209	7.18803	336.915
4.5309	34.6205	7.188	336.96
4.531	34.6199	7.18802	336.977
4.5312	34.6201	7.18797	337.06
4.5314	34.6205	7.18792	337.113
4.5316	34.62	7.18791	337.133
4.5317	34.6201	7.18789	337.198
4.5316	34.6205	7.18788	337.243
4.5315	34.6211	7.18788	337.3
4.5316	34.6208	7.18787	337.351
4.5319	34.6203	7.18784	337.411
4.5319	34.6206	7.18783	337.472
4.5317	34.6208	7.18785	337.515
4.5316	34.6208	7.18786	337.572
4.5316	34.6205	7.18789	337.621
4.5316	34.6208	7.18788	337.663
4.5318	34.6208	7.18784	337.723
4.5318	34.6201	7.18787	337.773
4.5318	34.6209	7.18782	337.822
4.5318	34.6212	7.18783	337.868
4.5325	34.6198	7.18776	337.92
4.5328	34.6205	7.18767	337.982
4.5333	34.6203	7.1876	338.026
4.5334	34.621	7.18755	338.081
4.5344	34.6204	7.18739	338.115
4.5351	34.6199	7.18731	338.161
4.5354	34.6216	7.18718	338.236
4.5357	34.622	7.1871	338.27
4.5355	34.6222	7.18713	338.341
4.5355	34.6223	7.18712	338.408
4.5352	34.623	7.18714	338.472
4.535	34.6232	7.18717	338.492
4.5349	34.6226	7.18721	338.526
4.5352	34.6216	7.1872	338.583
4.5353	34.6217	7.18718	338.659
4.5356	34.6219	7.18712	338.717
4.536	34.6218	7.18705	338.768
4.5363	34.6222	7.18699	338.801
4.5359	34.6227	7.18702	338.845
4.536	34.6224	7.18702	338.909
4.5365	34.6222	7.18696	338.961
4.5368	34.6224	7.18689	338.998
4.5369	34.6228	7.18685	339.084
4.5369	34.623	7.18684	339.087
4.5369	34.6235	7.18682	339.157
4.5367	34.6231	7.18686	339.223
4.5367	34.6233	7.18686	339.271
4.5367	34.6226	7.1869	339.321
4.5361	34.6233	7.18696	339.381
4.5359	34.6236	7.18699	339.423
4.5361	34.6228	7.18699	339.479
4.5364	34.6225	7.18696	339.495
4.5363	34.6227	7.18697	339.571
4.5365	34.6227	7.18693	339.625
4.5362	34.6229	7.18697	339.683
4.5361	34.6229	7.18698	339.717
4.5362	34.6232	7.18695	339.784
4.5363	34.6229	7.18695	339.815
4.5364	34.623	7.18692	339.86
4.5367	34.6227	7.18688	339.933
4.5369	34.6222	7.18687	339.955
4.5373	34.6229	7.18677	340.013
4.5373	34.6228	7.18678	340.067
4.5376	34.6225	7.18674	340.108
4.5377	34.6232	7.18669	340.184
4.5384	34.6224	7.18661	340.222
4.5386	34.6232	7.18654	340.262
4.5397	34.6227	7.18636	340.318
4.542	34.6211	7.18604	340.371
4.5444	34.6212	7.1856	340.441
4.5486	34.6199	7.18495	340.475
4.5522	34.6209	7.18426	340.52
4.5563	34.623	7.18345	340.606
4.5591	34.6254	7.18284	340.626
4.5612	34.6273	7.18238	340.656
4.5627	34.6296	7.18201	340.733
4.5647	34.63	7.18165	340.784
4.5668	34.6305	7.18126	340.811
4.5694	34.6303	7.18082	340.864
4.5722	34.6307	7.1803	340.949
4.5735	34.6326	7.17998	340.967
4.5746	34.6354	7.17966	341.028
4.5754	34.6362	7.17949	341.089
4.5763	34.6367	7.17931	341.138
4.5764	34.6374	7.17925	341.191
4.5768	34.6381	7.17914	341.232
4.5771	34.6386	7.17907	341.295
4.5772	34.6384	7.17907	341.354
4.5775	34.6387	7.179	341.4
4.5776	34.6387	7.17897	341.441
4.5782	34.6391	7.17886	341.471
4.5794	34.6383	7.17868	341.53
4.5809	34.6378	7.17845	341.59
4.5816	34.6396	7.17824	341.638
4.582	34.641	7.17811	341.656
4.5823	34.6412	7.17804	341.751
4.582	34.6415	7.17808	341.764
4.5823	34.6416	7.17801	341.82
4.5826	34.6413	7.17798	341.885
4.5825	34.6421	7.17796	341.934
4.5824	34.6421	7.17799	341.984
4.5825	34.6419	7.17797	342.017
4.5826	34.6422	7.17794	342.068
4.5823	34.6426	7.17797	342.118
4.5824	34.6425	7.17795	342.189
4.5827	34.642	7.17793	342.245
4.5826	34.6428	7.17792	342.272
4.5829	34.6422	7.1779	342.327
4.5827	34.6425	7.1779	342.375
4.5829	34.6426	7.17788	342.435
4.5829	34.6429	7.17786	342.482
4.5828	34.6425	7.17788	342.523
4.5829	34.6423	7.17788	342.579
4.5827	34.6432	7.17787	342.603
4.5832	34.6424	7.17783	342.663
4.5832	34.6429	7.17781	342.726
4.583	34.6432	7.17782	342.771
4.5832	34.643	7.17781	342.804
4.5832	34.6424	7.17783	342.879
4.5833	34.6429	7.17779	342.912
4.5832	34.6433	7.17778	342.965
4.5833	34.6436	7.17775	342.978
4.5834	34.6437	7.17772	343.064
4.5836	34.6434	7.17772	343.128
4.5835	34.6431	7.17775	343.174
4.5836	34.6436	7.17771	343.215
4.5834	34.6442	7.17771	343.273
4.5835	34.6439	7.17771	343.33
4.5834	34.644	7.17772	343.381
4.5833	34.6441	7.17773	343.408
4.5831	34.644	7.17777	343.475
4.5831	34.6436	7.17778	343.517
4.5829	34.6439	7.1778	343.555
4.5829	34.6438	7.17782	343.602
4.5829	34.6441	7.17779	343.664
4.5827	34.6439	7.17785	343.71
4.5827	34.6442	7.17783	343.748
4.5829	34.6441	7.17779	343.791
4.5829	34.6443	7.17779	343.831
4.583	34.6436	7.1778	343.917
4.5828	34.6444	7.17781	343.933
4.583	34.6437	7.1778	344.003
4.5828	34.6439	7.17783	344.052
4.5829	34.644	7.17781	344.089
4.5827	34.6441	7.17783	344.145
4.5829	34.6438	7.17782	344.197
4.5832	34.6441	7.17775	344.256
4.583	34.6439	7.17779	344.307
4.5828	34.6439	7.17782	344.344
4.5825	34.6443	7.17786	344.414
4.5824	34.6445	7.17788	344.445
4.5824	34.6446	7.17787	344.496
4.5822	34.6446	7.17789	344.544
4.5823	34.6443	7.17789	344.595
4.5823	34.6446	7.17789	344.636
4.5825	34.6445	7.17785	344.694
4.5826	34.6437	7.17787	344.764
4.5827	34.6441	7.17784	344.798
4.5825	34.6443	7.17785	344.846
4.5829	34.6441	7.17779	344.892
4.5828	34.6442	7.17781	344.945
4.5826	34.644	7.17786	344.989
4.5827	34.6443	7.17782	345.049
4.5828	34.6444	7.1778	345.118
4.5827	34.6446	7.1778	345.159
4.5827	34.6443	7.17782	345.179
4.5827	34.6446	7.17781	345.235
4.5827	34.6445	7.17781	345.292
4.5827	34.6442	7.17782	345.341
4.5827	34.6446	7.17782	345.373
4.5827	34.6444	7.17782	345.408
4.5829	34.6441	7.17779	345.494
4.5831	34.644	7.17776	345.545
4.5835	34.6443	7.17768	345.562
4.584	34.6439	7.17762	345.609
4.5842	34.6443	7.17756	345.689
4.5846	34.644	7.17751	345.728
4.5849	34.6441	7.17745	345.772
4.5858	34.6434	7.17733	345.833
4.586	34.6439	7.17726	345.884
4.5854	34.6457	7.17728	345.916
4.5851	34.6458	7.17733	345.954
4.5861	34.6436	7.17725	346.027
4.5869	34.6433	7.17714	346.096
4.5871	34.6445	7.17705	346.11
4.5871	34.6453	7.177	346.193
4.5874	34.645	7.17698	346.219
4.5874	34.6453	7.17695	346.276
4.5875	34.6451	7.17695	346.326
4.5875	34.6449	7.17695	346.37
4.5875	34.6449	7.17696	346.415
4.5876	34.645	7.17694	346.48
4.5876	34.6451	7.17694	346.502
4.5877	34.6446	7.17694	346.561
4.5874	34.6454	7.17695	346.618
4.5876	34.6454	7.17691	346.653
4.5875	34.6453	7.17694	346.718
4.5875	34.6452	7.17694	346.762
4.5878	34.6449	7.17691	346.806
4.5877	34.6454	7.1769	346.864
4.5875	34.6454	7.17693	346.914
4.5876	34.6455	7.17692	346.937
4.5878	34.6451	7.17689	347.024
4.5876	34.6452	7.17693	347.057
4.5876	34.6458	7.1769	347.111
4.5877	34.6454	7.1769	347.139
4.5879	34.6452	7.17687	347.206
4.5881	34.645	7.17684	347.276
4.5879	34.6456	7.17686	347.323
4.588	34.6457	7.17683	347.363
4.588	34.6452	7.17687	347.392
4.588	34.6451	7.17686	347.475
4.5878	34.6453	7.17688	347.549
4.588	34.6452	7.17686	347.561
4.5879	34.6457	7.17685	347.571
4.5879	34.6456	7.17686	347.646
4.5879	34.6459	7.17683	347.706
4.5881	34.6454	7.17682	347.76
4.5881	34.6453	7.17683	347.793
4.5881	34.6457	7.17681	347.865
4.5883	34.6451	7.1768	347.917
4.5881	34.6457	7.17681	347.951
4.5882	34.6459	7.17679	347.997
4.5881	34.6458	7.1768	348.044
4.5872	34.647	7.17691	348.095
4.5864	34.6469	7.17706	348.154
4.5859	34.6466	7.17716	348.187
4.5857	34.6464	7.17721	348.225
4.5855	34.6458	7.17726	348.29
4.5852	34.6465	7.17729	348.348
4.5853	34.6459	7.1773	348.379
4.5845	34.6466	7.1774	348.446
4.5843	34.6463	7.17745	348.488
4.5839	34.6464	7.17751	348.538
4.5843	34.6458	7.17748	348.592
4.5848	34.6446	7.17744	348.662
4.5848	34.6452	7.17741	348.702
4.5848	34.6458	7.17739	348.74
4.5845	34.6462	7.17742	348.806
4.5842	34.6458	7.17749	348.833
4.5841	34.646	7.1775	348.873
4.5841	34.6457	7.17752	348.929
4.5838	34.6462	7.17754	348.964
4.5841	34.6458	7.17751	349.026
4.5841	34.6456	7.17751	349.087
4.5852	34.6445	7.17737	349.109
4.586	34.6444	7.17724	349.162
4.5863	34.6453	7.17714	349.201
4.5868	34.6458	7.17704	349.253
4.587	34.6456	7.17701	349.326
4.5867	34.6466	7.17702	349.371
4.5869	34.6466	7.17699	349.409
4.5869	34.6465	7.17699	349.468
4.5869	34.6464	7.17699	349.502
4.5871	34.6461	7.17698	349.541
4.5869	34.6465	7.17699	349.604
4.5869	34.647	7.17697	349.629
4.5869	34.6462	7.177	349.689
4.5867	34.6467	7.17701	349.727
4.587	34.6466	7.17696	349.81
4.587	34.6463	7.17698	349.853
4.5866	34.6469	7.17701	349.888
4.5869	34.6461	7.17701	349.94
4.5867	34.647	7.177	349.998
4.5867	34.6465	7.17702	350.062
4.5865	34.6469	7.17703	350.094
4.5864	34.6468	7.17707	350.151
4.5862	34.6467	7.17709	350.182
4.5864	34.6464	7.17708	350.222
4.5866	34.6465	7.17705	350.255
4.5867	34.6469	7.177	350.338
4.5866	34.6467	7.17703	350.373
4.5866	34.6473	7.177	350.44
4.5866	34.6467	7.17703	350.472
4.5868	34.647	7.17699	350.506
4.5866	34.6469	7.17701	350.572
4.5866	34.6466	7.17704	350.585
4.5868	34.6474	7.17696	350.652
4.5868	34.6473	7.17697	350.707
4.587	34.6475	7.17692	350.743
4.5868	34.6477	7.17695	350.788
4.5869	34.6471	7.17696	350.861
4.5869	34.6477	7.17692	350.898
4.5869	34.6479	7.17693	350.979
4.5868	34.6477	7.17695	351.016
4.5866	34.6479	7.17697	351.041
4.5867	34.6474	7.17698	351.065
4.5867	34.6471	7.17699	351.126
4.5865	34.6473	7.17702	351.174
4.5865	34.6476	7.17701	351.229
4.5864	34.6475	7.17703	351.299
4.5864	34.6474	7.17702	351.317
4.5864	34.647	7.17705	351.375
4.5866	34.6468	7.17703	351.438
4.5865	34.6473	7.17701	351.482
4.5869	34.6473	7.17696	351.537
4.5864	34.6475	7.17703	351.575
4.5865	34.6475	7.17701	351.635
4.5865	34.647	7.17704	351.678
4.5864	34.6473	7.17703	351.718
4.5863	34.6476	7.17704	351.742
4.5867	34.6469	7.17701	351.817
4.5867	34.647	7.17701	351.863
4.5868	34.6471	7.17698	351.899
4.5867	34.6471	7.177	351.934
4.5865	34.6475	7.17701	352.003
4.5866	34.6475	7.17699	352.062
4.5866	34.6476	7.17699	352.085
4.5867	34.6473	7.17699	352.124
4.5868	34.6471	7.17698	352.179
4.5865	34.6477	7.177	352.232
4.5867	34.6475	7.17697	352.278
4.5869	34.6475	7.17693	352.321
4.5865	34.6481	7.17698	352.362
4.5862	34.648	7.17703	352.423
4.5863	34.6475	7.17705	352.469
4.5862	34.6474	7.17706	352.501
4.5861	34.648	7.17705	352.549
4.5868	34.6472	7.17698	352.591
4.5872	34.6472	7.1769	352.657
4.5874	34.6472	7.17686	352.72
4.5877	34.6471	7.17682	352.761
4.5881	34.6472	7.17674	352.801
4.5876	34.648	7.1768	352.848
4.5873	34.6481	7.17683	352.877
4.5871	34.6478	7.17689	352.938
4.5872	34.6476	7.17687	352.974
4.5871	34.6475	7.1769	353.039
4.5871	34.6479	7.17688	353.073
4.5871	34.6482	7.17686	353.129
4.5869	34.6481	7.17691	353.174
4.5871	34.648	7.17689	353.219
4.5872	34.6478	7.17687	353.262
4.5872	34.6479	7.17686	353.3
4.587	34.6481	7.1769	353.361
4.5869	34.6481	7.17691	353.394
4.5869	34.6482	7.17692	353.436
4.5869	34.6476	7.17694	353.495
4.5867	34.6483	7.17694	353.533
4.5867	34.6481	7.17695	353.573
4.5866	34.6479	7.17697	353.614
4.5865	34.648	7.17698	353.674
4.5865	34.6485	7.17696	353.717
4.5864	34.6483	7.17698	353.757
4.5864	34.648	7.17701	353.823
4.5864	34.6479	7.17701	353.879
4.5865	34.6478	7.177	353.939
4.5866	34.6481	7.17697	353.946
4.5864	34.6482	7.177	354.022
4.5866	34.6476	7.17699	354.05
4.5868	34.6477	7.17694	354.122
4.5867	34.6479	7.17695	354.141
4.5869	34.6478	7.17693	354.183
4.5872	34.6478	7.17688	354.22
4.5872	34.6476	7.17689	354.269
4.5869	34.6485	7.1769	354.326
4.5866	34.6486	7.17694	354.377
4.5865	34.6485	7.17696	354.429
4.5866	34.6476	7.17699	354.452
4.5867	34.6479	7.17696	354.487
4.5868	34.6481	7.17693	354.513
4.5866	34.6481	7.17696	354.593
4.5866	34.6482	7.17695	354.633
4.5866	34.6481	7.17696	354.665
4.5866	34.6485	7.17695	354.736
4.5865	34.6481	7.17697	354.776
4.5867	34.6479	7.17696	354.828
4.5866	34.648	7.17697	354.88
4.587	34.6476	7.17691	354.935
4.5868	34.6483	7.17691	354.97
4.5869	34.6484	7.1769	355.009
4.5867	34.6487	7.17691	355.025
4.5869	34.6484	7.1769	355.09
4.5869	34.6488	7.17687	355.148
4.587	34.6482	7.17689	355.19
4.587	34.6482	7.17689	355.23
4.587	34.6487	7.17687	355.295
4.5871	34.6485	7.17686	355.352
4.5871	34.6483	7.17687	355.371
4.5873	34.6486	7.17682	355.411
4.5871	34.6486	7.17685	355.476
4.5869	34.6486	7.17689	355.512
4.5871	34.6485	7.17687	355.548
4.5872	34.6484	7.17685	355.619
4.5872	34.6483	7.17685	355.666
4.5872	34.6484	7.17684	355.695
4.5872	34.6487	7.17684	355.743
4.5873	34.6487	7.17682	355.773
4.5872	34.6484	7.17684	355.826
4.5872	34.6484	7.17684	355.869
4.5872	34.6483	7.17685	355.929
4.5872	34.6482	7.17686	355.964
4.5871	34.6488	7.17684	355.997
4.5872	34.6486	7.17684	356.074
4.5872	34.6486	7.17684	356.111
4.5873	34.6484	7.17683	356.142
4.5872	34.6485	7.17684	356.171
4.5873	34.6484	7.17683	356.226
4.587	34.649	7.17685	356.276
4.5872	34.6487	7.17683	356.304
4.5872	34.6486	7.17683	356.365
4.5872	34.6489	7.17682	356.416
4.5873	34.6484	7.17682	356.47
4.587	34.6488	7.17685	356.501
4.5874	34.6485	7.1768	356.538
4.5871	34.6484	7.17686	356.605
4.5872	34.6486	7.17683	356.63
4.5875	34.6488	7.17678	356.663
4.5871	34.6491	7.17682	356.708
4.5872	34.6487	7.17683	356.772
4.5871	34.6488	7.17685	356.814
4.5873	34.6486	7.17682	356.854
4.5874	34.6484	7.17681	356.912
4.5875	34.648	7.17681	356.958
4.5874	34.6488	7.17679	356.975
4.5873	34.6484	7.17683	357.046
4.5871	34.6487	7.17684	357.092
4.5871	34.6488	7.17684	357.126
4.5873	34.6482	7.17684	357.165
4.5872	34.6487	7.17682	357.231
4.5874	34.6487	7.17679	357.272
4.5874	34.6485	7.1768	357.321
4.5875	34.6492	7.17675	357.373
4.5872	34.649	7.17681	357.422
4.5875	34.6485	7.17679	357.442
4.5875	34.6486	7.17679	357.494
4.5872	34.6487	7.17683	357.525
4.5874	34.6488	7.17679	357.578
4.5872	34.649	7.17681	357.635
4.5874	34.6485	7.17681	357.682
4.5874	34.6486	7.17681	357.717
4.5875	34.6486	7.17679	357.74
4.5875	34.6488	7.17677	357.819
4.5872	34.6491	7.17681	357.861
4.5874	34.6489	7.17679	357.915
4.5875	34.6485	7.17678	357.929
4.5876	34.6488	7.17675	357.968
4.5877	34.6489	7.17674	358.002
4.5876	34.6488	7.17675	358.055
4.5878	34.6495	7.1767	358.084
4.5878	34.649	7.1767	358.146
4.5879	34.6489	7.1767	358.198
4.5876	34.6488	7.17676	358.247
4.5878	34.6487	7.17672	358.287
4.5883	34.6489	7.17664	358.315
4.5882	34.6487	7.17666	358.367
4.5884	34.6484	7.17664	358.421
4.5883	34.6487	7.17664	358.463
4.5882	34.6485	7.17667	358.511
4.5882	34.6484	7.17668	358.557
4.5883	34.6484	7.17665	358.591
4.5882	34.6486	7.17666	358.645
4.5883	34.649	7.17663	358.682
4.5882	34.6485	7.17667	358.724
4.5881	34.6488	7.17666	358.752
4.5881	34.6485	7.17669	358.815
4.5881	34.6483	7.17669	358.865
4.588	34.6483	7.1767	358.901
4.588	34.6485	7.17669	358.946
4.5879	34.6491	7.17669	358.993
4.5883	34.6487	7.17664	359.034
4.5879	34.6494	7.17668	359.068
4.588	34.6487	7.17669	359.113
4.588	34.6488	7.17669	359.164
4.588	34.6494	7.17666	359.182
4.5879	34.6484	7.17672	359.241
4.5878	34.6489	7.17672	359.318
4.5879	34.6484	7.17672	359.368
4.5879	34.6494	7.17667	359.37
4.5878	34.6489	7.17671	359.415
4.5878	34.6489	7.17671	359.481
4.588	34.649	7.17669	359.512
4.5881	34.6488	7.17667	359.538
4.5878	34.6488	7.17671	359.586
4.5876	34.6492	7.17673	359.66
4.5881	34.6482	7.17669	359.708
4.588	34.649	7.17668	359.744
4.5883	34.6482	7.17667	359.798
4.5881	34.6488	7.17667	359.825
4.5882	34.6494	7.17662	359.877
4.5884	34.6488	7.17661	359.908
4.5882	34.6488	7.17664	359.945
4.588	34.649	7.17667	359.994
4.5883	34.6489	7.17664	360.025
4.5883	34.6483	7.17665	360.084
4.5883	34.6482	7.17667	360.148
4.5885	34.6487	7.1766	360.177
4.5883	34.649	7.17662	360.234
4.5885	34.6486	7.17661	360.251
4.5886	34.6489	7.17657	360.318
4.5885	34.6486	7.17662	360.352
4.5885	34.6489	7.1766	360.392
4.5883	34.6491	7.17662	360.424
4.5885	34.6487	7.17661	360.473
4.5882	34.6489	7.17664	360.541
4.5882	34.6488	7.17664	360.558
4.5883	34.6487	7.17663	360.599
4.5884	34.6487	7.17661	360.632
4.5881	34.6493	7.17664	360.689
4.5881	34.6492	7.17665	360.722
4.588	34.649	7.17667	360.776
4.5881	34.6486	7.17667	360.807
4.5881	34.6491	7.17666	360.851
4.588	34.649	7.17667	360.91
4.588	34.6491	7.17667	360.94
4.5879	34.6488	7.1767	360.997
4.5885	34.6487	7.17661	361.025
4.5888	34.6486	7.17656	361.062
4.5888	34.6486	7.17656	361.105
4.5886	34.649	7.17657	361.157
4.5887	34.649	7.17656	361.209
4.5885	34.649	7.17658	361.216
4.5882	34.6493	7.17662	361.281
4.5885	34.6492	7.17658	361.367
4.5886	34.6494	7.17656	361.399
4.5885	34.6497	7.17657	361.425
4.5885	34.6496	7.17657	361.459
4.5884	34.6491	7.1766	361.488
4.5885	34.6496	7.17656	361.538
4.5886	34.6495	7.17655	361.567
4.5886	34.6495	7.17655	361.644
4.5884	34.6494	7.17658	361.682
4.5887	34.6491	7.17656	361.732
4.5886	34.6494	7.17656	361.765
4.5885	34.6492	7.17658	361.788
4.5885	34.6494	7.17656	361.866
4.5885	34.6491	7.17658	361.886
4.5884	34.6495	7.17659	361.904
4.5884	34.6491	7.1766	361.973
4.5887	34.6491	7.17654	362.005
4.5887	34.6491	7.17655	362.049
4.5885	34.6495	7.17656	362.071
4.5886	34.6499	7.17652	362.124
4.5884	34.6498	7.17657	362.171
4.5887	34.6496	7.17654	362.2
4.5888	34.6495	7.17652	362.267
4.5886	34.6492	7.17656	362.312
4.5887	34.6495	7.17652	362.337
4.5886	34.6492	7.17657	362.387
4.5887	34.6499	7.17651	362.449
4.5886	34.6493	7.17656	362.464
4.5888	34.6491	7.17653	362.513
4.5888	34.6497	7.17651	362.54
4.5888	34.6492	7.17653	362.601
4.5889	34.649	7.17652	362.655
4.5888	34.6494	7.17652	362.682
4.5889	34.6501	7.17647	362.722
4.5887	34.6499	7.17651	362.772
4.5886	34.6495	7.17654	362.807
4.5888	34.6494	7.17652	362.852
4.5891	34.6491	7.17648	362.899
4.5893	34.6489	7.17645	362.933
4.5893	34.6491	7.17645	362.973
4.5893	34.6495	7.17643	363.016
4.5894	34.6495	7.17641	363.047
4.5893	34.6498	7.17641	363.098
4.5891	34.65	7.17643	363.145
4.5895	34.6496	7.17638	363.169
4.5896	34.65	7.17635	363.196
4.5896	34.6497	7.17636	363.283
4.5895	34.6495	7.17638	363.311
4.5894	34.65	7.17639	363.35
4.5892	34.6502	7.17642	363.367
4.5891	34.65	7.17644	363.413
4.5891	34.6497	7.17646	363.464
4.5889	34.6503	7.17646	363.503
4.5889	34.6495	7.1765	363.585
4.5888	34.6495	7.17651	363.621
4.5893	34.6495	7.17643	363.639
4.5891	34.6495	7.17647	363.681
4.5892	34.6497	7.17644	363.711
4.5893	34.6501	7.1764	363.763
4.5894	34.6492	7.17642	363.807
4.5892	34.6496	7.17644	363.828
4.5893	34.6496	7.17643	363.888
4.5892	34.65	7.17643	363.924
4.5892	34.6502	7.17641	363.955
4.5895	34.6496	7.17638	364.009
4.5895	34.6496	7.17639	364.043
4.5896	34.6497	7.17637	364.083
4.5895	34.6497	7.17638	364.12
4.5897	34.6498	7.17634	364.149
4.5894	34.6496	7.1764	364.197
4.5893	34.6499	7.17641	364.235
4.5893	34.6494	7.17643	364.286
4.5893	34.6495	7.17642	364.327
4.5894	34.6496	7.1764	364.368
4.5897	34.6492	7.17638	364.411
4.5897	34.6497	7.17635	364.43
4.5897	34.6493	7.17636	364.484
4.5897	34.6497	7.17634	364.533
4.5896	34.6499	7.17635	364.585
4.5897	34.6501	7.17633	364.63
4.5895	34.6502	7.17635	364.665
4.5897	34.6498	7.17634	364.722
4.5894	34.6497	7.17639	364.73
4.5891	34.6498	7.17644	364.783
4.5891	34.6496	7.17645	364.826
4.5891	34.6495	7.17646	364.848
4.5893	34.649	7.17644	364.91
4.5893	34.6496	7.17643	364.947
4.5892	34.6498	7.17643	364.991
4.5893	34.65	7.1764	365.017
4.5894	34.65	7.17638	365.083
4.5895	34.6498	7.17637	365.12
4.5896	34.6491	7.17638	365.161
4.5897	34.6494	7.17636	365.198
4.5898	34.6501	7.17631	365.247
4.5898	34.6496	7.17634	365.281
4.59	34.6499	7.17629	365.332
4.59	34.6497	7.17629	365.359
4.5903	34.6494	7.17626	365.395
4.5906	34.6497	7.17619	365.458
4.5908	34.6494	7.17618	365.466
4.5908	34.6495	7.17616	365.52
4.5907	34.6507	7.17612	365.553
4.5912	34.6502	7.17606	365.596
4.5913	34.6507	7.17602	365.625
4.5912	34.6503	7.17605	365.667
4.5909	34.6506	7.1761	365.716
4.5905	34.6507	7.17617	365.737
4.5903	34.6507	7.1762	365.812
4.5905	34.6501	7.17619	365.841
4.5909	34.6498	7.17613	365.876
4.5912	34.6496	7.1761	365.917
4.5914	34.6499	7.17603	365.976
4.5913	34.6503	7.17603	366.002
4.5914	34.6506	7.17601	366.04
4.5916	34.6505	7.17598	366.072
4.5917	34.6502	7.17597	366.097
4.5919	34.6501	7.17594	366.146
4.5919	34.6508	7.17591	366.188
4.5921	34.6509	7.17587	366.235
4.5921	34.6506	7.17589	366.285
4.5919	34.6508	7.17591	366.309
4.5919	34.6515	7.17588	366.355
4.5917	34.651	7.17593	366.393
4.5916	34.651	7.17594	366.418
4.5918	34.6511	7.17592	366.483
4.5916	34.6509	7.17595	366.527
4.5917	34.6506	7.17595	366.549
4.5917	34.6507	7.17594	366.59
4.5918	34.6511	7.1759	366.634
4.592	34.6504	7.17592	366.692
4.592	34.6503	7.17591	366.731
4.592	34.6511	7.17587	366.742
4.5923	34.6502	7.17586	366.769
4.5923	34.6509	7.17583	366.85
4.5925	34.6511	7.17579	366.9
4.5923	34.6516	7.17581	366.924
4.5922	34.6514	7.17582	366.982
4.5923	34.6512	7.17583	366.989
4.5921	34.6511	7.17586	367.027
4.5921	34.6513	7.17585	367.091
4.5922	34.651	7.17585	367.118
4.5925	34.6505	7.17581	367.152
4.5934	34.6503	7.17568	367.196
4.5944	34.6502	7.1755	367.234
4.5951	34.6503	7.17537	367.262
4.5955	34.6516	7.17525	367.32
4.5955	34.6516	7.17524	367.378
4.5957	34.6518	7.17519	367.393
4.5958	34.6521	7.17516	367.422
4.5957	34.6523	7.17517	367.47
4.596	34.6524	7.17512	367.504
4.5959	34.6525	7.17514	367.544
4.5958	34.6521	7.17516	367.588
4.5953	34.6524	7.17523	367.615
4.5952	34.6522	7.17526	367.672
4.5954	34.652	7.17524	367.693
4.5951	34.6524	7.17528	367.714
4.5951	34.6524	7.17527	367.779
4.5955	34.652	7.17523	367.815
4.5955	34.6519	7.17524	367.868
4.5958	34.6519	7.17518	367.902
4.5959	34.6523	7.17515	367.949
4.5959	34.6519	7.17516	367.991
4.5958	34.6528	7.17513	368.036
4.5959	34.6523	7.17515	368.044
4.5958	34.653	7.17513	368.084
4.5958	34.6525	7.17514	368.12
4.5959	34.6529	7.17511	368.182
4.5957	34.6524	7.17516	368.216
4.5958	34.6523	7.17517	368.246
4.5961	34.6526	7.1751	368.29
4.5965	34.652	7.17506	368.336
4.5967	34.6519	7.17502	368.379
4.5967	34.6528	7.17497	368.419
4.5968	34.6527	7.17496	368.443
4.5968	34.6527	7.17496	368.503
4.5967	34.6529	7.17497	368.531
4.5969	34.6532	7.17492	368.554
4.597	34.6524	7.17495	368.609
4.5971	34.6526	7.17492	368.664
4.5969	34.6534	7.17491	368.691
4.5972	34.6528	7.17489	368.741
4.5975	34.6527	7.17485	368.785
4.5978	34.6523	7.17481	368.796
4.5978	34.6534	7.17477	368.835
4.598	34.6538	7.1747	368.863
4.5981	34.654	7.17468	368.911
4.5982	34.6537	7.17467	368.963
4.5984	34.6539	7.17463	368.992
4.5984	34.6539	7.17463	369.048
4.5985	34.6543	7.17459	369.081
4.5984	34.654	7.17462	369.117
4.5984	34.6544	7.1746	369.174
4.5985	34.654	7.17461	369.195
4.5988	34.6539	7.17456	369.237
4.5988	34.6546	7.17452	369.272
4.5985	34.6546	7.17458	369.333
4.5989	34.6543	7.17453	369.377
4.5987	34.6548	7.17453	369.428
4.5985	34.6544	7.17458	369.454
4.5987	34.6543	7.17456	369.496
4.5986	34.6543	7.17457	369.521
4.5988	34.6542	7.17455	369.581
4.5986	34.6542	7.17458	369.609
4.5986	34.6538	7.1746	369.669
4.5986	34.6544	7.17456	369.69
4.5986	34.6548	7.17456	369.729
4.5987	34.6546	7.17454	369.792
4.5985	34.6543	7.17459	369.825
4.5987	34.6546	7.17454	369.838
4.5988	34.6541	7.17455	369.88
4.5989	34.6545	7.17452	369.957
4.5989	34.6543	7.17452	369.988
4.5988	34.6545	7.17454	370.005
4.5988	34.6543	7.17454	370.069
4.599	34.6543	7.1745	370.1
4.5988	34.6549	7.1745	370.151
4.5989	34.6547	7.1745	370.182
4.5992	34.6541	7.17448	370.225
4.5994	34.6544	7.17443	370.266
4.5993	34.6547	7.17443	370.312
4.5991	34.6547	7.17448	370.361
4.5993	34.6547	7.17444	370.392
4.5993	34.6547	7.17444	370.431
4.5992	34.6547	7.17445	370.488
4.5991	34.6542	7.17449	370.509
4.5995	34.6543	7.17442	370.564
4.5992	34.6548	7.17444	370.61
4.5994	34.6546	7.17441	370.661
4.5996	34.6542	7.17441	370.708
4.5995	34.655	7.17438	370.756
4.5993	34.6549	7.17443	370.777
4.5994	34.6546	7.17442	370.829
4.5998	34.6541	7.17438	370.844
4.5998	34.6542	7.17438	370.915
4.5999	34.6547	7.17433	370.94
4.5996	34.6553	7.17435	370.978
4.5998	34.6554	7.17432	371.027
4.6001	34.6546	7.1743	371.074
4.5998	34.6552	7.17432	371.099
4.6001	34.655	7.17429	371.135
4.6002	34.6546	7.17429	371.196
4.6002	34.6543	7.1743	371.245
4.6003	34.6555	7.17422	371.277
4.6008	34.6545	7.17419	371.345
4.6006	34.6551	7.17419	371.349
4.6005	34.656	7.17415	371.395
4.6009	34.6549	7.17414	371.449
4.601	34.6552	7.17411	371.498
4.6017	34.6539	7.17406	371.517
4.6023	34.6546	7.17391	371.564
4.6021	34.6555	7.17391	371.587
4.6021	34.6562	7.17388	371.662
4.6025	34.6551	7.17386	371.697
4.6026	34.6556	7.17381	371.758
4.603	34.6554	7.17376	371.784
4.6034	34.6556	7.17368	371.834
4.6037	34.6557	7.17362	371.901
4.6035	34.6565	7.17362	371.948
4.6031	34.6568	7.17367	371.985
4.6036	34.6564	7.17361	371.988
4.6032	34.6562	7.17368	372.067
4.6035	34.6557	7.17366	372.112
4.6036	34.6559	7.17363	372.142
4.6033	34.6569	7.17363	372.159
4.6031	34.6566	7.17368	372.208
4.6027	34.6572	7.17372	372.263
4.6028	34.6561	7.17376	372.284
4.6028	34.6563	7.17374	372.337
4.6027	34.6567	7.17375	372.372
4.6031	34.6559	7.17371	372.437
4.6034	34.6559	7.17367	372.474
4.6034	34.6564	7.17365	372.51
4.6032	34.6567	7.17366	372.533
4.6033	34.6564	7.17366	372.596
4.6036	34.6556	7.17364	372.64
4.6036	34.6561	7.17362	372.663
4.6035	34.6569	7.1736	372.72
4.6034	34.6563	7.17365	372.773
4.6035	34.6563	7.17363	372.782
4.6036	34.6559	7.17364	372.825
4.6038	34.6558	7.17359	372.895
4.6039	34.6561	7.17356	372.943
4.6042	34.6561	7.17351	372.973
4.6047	34.6557	7.17344	373.022
4.6051	34.6562	7.17335	373.059
4.6049	34.6574	7.17332	373.102
4.6048	34.6575	7.17335	373.135
4.6046	34.6569	7.1734	373.177
4.6046	34.6564	7.17342	373.244
4.6044	34.657	7.17344	373.277
4.605	34.6561	7.17338	373.335
4.6053	34.6561	7.17332	373.373
4.6053	34.6567	7.17329	373.403
4.605	34.6568	7.17334	373.449
4.6048	34.6568	7.17338	373.47
4.6044	34.6571	7.17343	373.505
4.6042	34.657	7.17346	373.56
4.6045	34.6563	7.17346	373.599
4.6044	34.656	7.17348	373.646
4.6043	34.6568	7.17347	373.694
4.6046	34.6567	7.17342	373.731
4.6049	34.6563	7.17338	373.768
4.6046	34.6567	7.17341	373.806
4.6045	34.6568	7.17343	373.844
4.6046	34.657	7.1734	373.911
4.6044	34.6566	7.17345	373.951
4.6043	34.6574	7.17343	373.961
4.6045	34.657	7.17343	374.015
4.6046	34.6558	7.17345	374.055
4.6049	34.6568	7.17336	374.09
4.6049	34.6566	7.17336	374.135
4.6051	34.6565	7.17335	374.188
4.6053	34.6567	7.17329	374.207
4.6056	34.6561	7.17327	374.27
4.6047	34.6579	7.17334	374.303
4.6044	34.6576	7.17341	374.356
4.6044	34.6566	7.17346	374.399
4.6042	34.6567	7.17348	374.427
4.6046	34.6567	7.17342	374.47
4.6044	34.6567	7.17345	374.513
4.6041	34.6567	7.1735	374.53
4.6042	34.6569	7.17347	374.587
4.6044	34.6568	7.17345	374.648
4.6043	34.6566	7.17347	374.691
4.6042	34.6568	7.17347	374.737
4.6044	34.6565	7.17346	374.771
4.6043	34.6568	7.17346	374.832
4.6038	34.6569	7.17355	374.846
4.6036	34.657	7.17358	374.899
4.6038	34.6557	7.1736	374.961
4.6039	34.656	7.17356	374.984
4.6043	34.656	7.1735	375.013
4.6038	34.6572	7.17353	375.06
4.6035	34.6577	7.17357	375.091
4.6034	34.6565	7.17364	375.157
4.604	34.6553	7.17358	375.2
4.6044	34.6557	7.1735	375.249
4.6039	34.6569	7.17353	375.287
4.6035	34.6572	7.17358	375.314
4.6036	34.6567	7.17359	375.377
4.6038	34.6561	7.17358	375.411
4.6042	34.6561	7.1735	375.431
4.6043	34.6565	7.17347	375.502
4.6047	34.6565	7.1734	375.558
4.6044	34.6566	7.17345	375.594
4.604	34.6571	7.1735	375.622
4.604	34.6571	7.1735	375.644
4.6046	34.6562	7.17345	375.685
4.6047	34.6558	7.17345	375.72
4.6046	34.6569	7.17341	375.775
4.6042	34.6571	7.17346	375.816
4.6041	34.6562	7.17352	375.857
4.6041	34.6568	7.1735	375.88
4.6042	34.6571	7.17347	375.931
4.6041	34.6566	7.1735	375.968
4.6041	34.6569	7.1735	376.008
4.6044	34.6563	7.17347	376.064
4.6044	34.6563	7.17348	376.114
4.6038	34.6575	7.17352	376.148
4.6044	34.6563	7.17347	376.203
4.605	34.6557	7.1734	376.25
4.6048	34.6564	7.17339	376.281
4.6045	34.6578	7.17337	376.318
4.6051	34.6563	7.17334	376.348
4.6055	34.6563	7.17327	376.402
4.6057	34.6569	7.17322	376.436
4.6054	34.6569	7.17327	376.471
4.6052	34.6574	7.17327	376.52
4.6056	34.6567	7.17324	376.581
4.6061	34.6561	7.17317	376.608
4.6066	34.6559	7.1731	376.668
4.6067	34.6569	7.17304	376.7
4.6055	34.6577	7.17321	376.717
4.6052	34.6582	7.17323	376.791
4.6053	34.6567	7.1733	376.843
4.6055	34.6562	7.17327	376.863
4.6057	34.6568	7.17323	376.906
4.6058	34.657	7.17319	376.949
4.6056	34.657	7.17323	376.992
4.606	34.657	7.17316	377.034
4.606	34.6572	7.17314	377.067
4.6054	34.6575	7.17324	377.164
4.6046	34.658	7.17336	377.201
4.604	34.658	7.17345	377.222
4.6034	34.657	7.17361	377.269
4.6035	34.6567	7.1736	377.309
4.6035	34.6566	7.17361	377.332
4.604	34.6558	7.17357	377.39
4.604	34.6557	7.17356	377.443
4.6036	34.6566	7.17359	377.467
4.6038	34.6561	7.17358	377.512
4.605	34.6547	7.17344	377.556
4.6058	34.6555	7.17327	377.612
4.6058	34.6565	7.17321	377.645
4.6058	34.6573	7.17317	377.673
4.606	34.6569	7.17316	377.736
4.6059	34.657	7.17317	377.786
4.6062	34.6568	7.17314	377.817
4.6059	34.657	7.17318	377.865
4.606	34.6568	7.17316	377.919
4.606	34.6572	7.17314	377.937
4.6061	34.6573	7.17312	377.973
4.6063	34.6569	7.17311	378.046
4.6061	34.6568	7.17314	378.059
4.6061	34.6571	7.17313	378.14
4.6062	34.6574	7.17311	378.159
4.606	34.6574	7.17313	378.207
4.6052	34.6585	7.17323	378.252
4.604	34.6592	7.17341	378.306
4.6042	34.6573	7.17345	378.349
4.605	34.6553	7.17342	378.393
4.6057	34.656	7.17325	378.442
4.6055	34.6568	7.17325	378.478
4.6044	34.6584	7.17337	378.517
4.6043	34.6578	7.17342	378.576
4.605	34.6558	7.17339	378.613
4.6053	34.6561	7.17332	378.64
4.6055	34.6575	7.17322	378.675
4.6051	34.6573	7.17331	378.749
4.605	34.6574	7.17332	378.799
4.6047	34.6573	7.17337	378.845
4.605	34.6569	7.17334	378.879
4.6049	34.6569	7.17336	378.926
4.6043	34.6578	7.17341	378.973
4.6041	34.6577	7.17346	379.022
4.6041	34.657	7.17349	379.049
4.604	34.6565	7.17353	379.088
4.604	34.6572	7.17349	379.138
4.604	34.6568	7.17351	379.2
4.6036	34.657	7.17357	379.244
4.6035	34.6573	7.17358	379.279
4.6036	34.6571	7.17358	379.319
4.6031	34.6571	7.17365	379.381
4.6036	34.6573	7.17357	379.425
4.6034	34.6567	7.17363	379.469
4.6034	34.6571	7.17361	379.502
4.6035	34.6571	7.17359	379.563
4.6035	34.6568	7.1736	379.599
4.6032	34.6569	7.17365	379.635
4.6032	34.6571	7.17363	379.681
4.6031	34.657	7.17366	379.737
4.6035	34.6563	7.17362	379.784
4.6034	34.657	7.17362	379.843
4.6032	34.6575	7.17361	379.893
4.6031	34.6567	7.17367	379.942
4.603	34.657	7.17368	379.96
4.6033	34.6565	7.17366	380.021
4.6034	34.656	7.17366	380.049
4.6033	34.6569	7.17363	380.086
4.6034	34.6573	7.1736	380.171
4.603	34.6572	7.17367	380.192
4.6031	34.6568	7.17367	380.247
4.6029	34.6572	7.17369	380.286
4.6031	34.6567	7.17368	380.326
4.6032	34.6568	7.17365	380.363
4.6033	34.6567	7.17365	380.421
4.6034	34.6569	7.17362	380.486
4.6038	34.6564	7.17357	380.515
4.6039	34.6569	7.17353	380.546
4.604	34.6564	7.17354	380.6
4.6045	34.6564	7.17345	380.64
4.6047	34.6571	7.17338	380.702
4.6045	34.6574	7.17341	380.749
4.6041	34.6576	7.17346	380.799
4.6042	34.657	7.17346	380.85
4.6042	34.6567	7.17349	380.891
4.6044	34.6568	7.17344	380.923
4.6045	34.6572	7.17342	380.959
4.6047	34.6567	7.17339	381.044
4.6045	34.6568	7.17343	381.083
4.6047	34.6569	7.17339	381.109
4.6047	34.6564	7.17342	381.151
4.6044	34.6574	7.17342	381.209
4.6038	34.658	7.1735	381.233
4.6039	34.6569	7.17352	381.287
4.6038	34.6571	7.17354	381.342
4.6037	34.6571	7.17355	381.377
4.6038	34.6569	7.17354	381.412
4.6036	34.6571	7.17357	381.489
4.6033	34.6571	7.17362	381.517
4.6035	34.6567	7.1736	381.559
4.6037	34.6564	7.17359	381.598
4.6038	34.6571	7.17353	381.664
4.6041	34.6566	7.17351	381.694
4.6038	34.6571	7.17353	381.77
4.604	34.6574	7.17349	381.8
4.604	34.6568	7.17352	381.862
4.6038	34.6574	7.17353	381.9
4.6042	34.6571	7.17347	381.955
4.6043	34.6571	7.17345	381.982
4.6044	34.6568	7.17344	382.033
4.6043	34.6572	7.17345	382.098
4.6044	34.6569	7.17345	382.142
4.6045	34.6569	7.17342	382.195
4.6045	34.6567	7.17343	382.224
4.6048	34.6572	7.17336	382.3
4.6046	34.657	7.1734	382.318
4.6045	34.6575	7.17339	382.379
4.6045	34.6571	7.17341	382.42
4.6047	34.6566	7.1734	382.471
4.6049	34.6565	7.17338	382.512
4.6046	34.6573	7.17339	382.545
4.6047	34.657	7.17339	382.583
4.6048	34.6568	7.17338	382.668
4.605	34.657	7.17334	382.713
4.6051	34.6573	7.1733	382.752
4.6051	34.6567	7.17333	382.787
4.6049	34.6571	7.17334	382.841
4.6049	34.6569	7.17334	382.893
4.6049	34.6569	7.17335	382.944
4.6053	34.6567	7.17329	382.987
4.6057	34.6566	7.17322	383.01
4.6063	34.6565	7.17313	383.08
4.6067	34.6565	7.17305	383.104
4.6071	34.6568	7.17297	383.175
4.6069	34.6573	7.17298	383.229
4.6068	34.6575	7.173	383.279
4.6066	34.6579	7.17301	383.293
4.6064	34.6568	7.1731	383.378
4.6062	34.6575	7.17311	383.407
4.6053	34.6585	7.17322	383.459
4.6047	34.6585	7.17332	383.525
4.6048	34.6573	7.17335	383.584
4.6047	34.6567	7.1734	383.626
4.6044	34.6575	7.17342	383.659
4.6042	34.6573	7.17345	383.708
4.6043	34.6567	7.17347	383.761
4.6045	34.6567	7.17343	383.8
4.6047	34.6574	7.17336	383.863
4.6046	34.6574	7.17339	383.923
4.6049	34.657	7.17336	383.947
4.6048	34.6571	7.17337	383.995
4.6049	34.6569	7.17335	384.046
4.6043	34.6575	7.17343	384.097
4.6042	34.658	7.17343	384.143
4.6044	34.6568	7.17344	384.195
4.6042	34.6572	7.17347	384.224
4.6038	34.6572	7.17352	384.291
4.6042	34.6573	7.17347	384.335
4.6038	34.6567	7.17356	384.399
4.6033	34.6583	7.17357	384.421
4.6027	34.6573	7.17372	384.464
4.602	34.6578	7.17381	384.517
4.6022	34.6568	7.17382	384.585
4.6026	34.6561	7.17379	384.647
4.6033	34.6561	7.17367	384.698
4.6038	34.6561	7.17357	384.736
4.604	34.657	7.1735	384.781
4.6037	34.6572	7.17354	384.825
4.6038	34.6569	7.17355	384.879
4.6037	34.6571	7.17355	384.936
4.6032	34.6572	7.17363	384.997
4.6034	34.6571	7.1736	385.007
4.6033	34.6572	7.17363	385.073
4.6025	34.6582	7.1737	385.114
4.6027	34.6572	7.17372	385.178
4.6027	34.6562	7.17378	385.231
4.6032	34.6562	7.17369	385.269
4.6037	34.6566	7.17358	385.324
4.6037	34.6565	7.17359	385.376
4.6038	34.6565	7.17357	385.426
4.6042	34.6565	7.1735	385.475
4.6044	34.6571	7.17344	385.512
4.6043	34.6569	7.17346	385.591
4.6045	34.6572	7.1734	385.647
4.6037	34.6575	7.17353	385.681
4.6028	34.6583	7.17366	385.724
4.6019	34.6583	7.17381	385.763
4.6019	34.6578	7.17384	385.821
4.6016	34.6573	7.1739	385.877
4.6016	34.6568	7.17393	385.911
4.6018	34.6566	7.17391	385.96
4.6022	34.6563	7.17386	386.035
4.6024	34.6566	7.1738	386.052
4.6026	34.6564	7.17378	386.113
4.6026	34.6566	7.17377	386.156
4.6024	34.6573	7.17378	386.187
4.6024	34.6573	7.17377	386.247
4.6024	34.6572	7.17378	386.288
4.6022	34.6578	7.17378	386.353
4.6019	34.6579	7.17383	386.396
4.6013	34.6575	7.17395	386.45
4.6016	34.6578	7.17389	386.514
4.6015	34.6569	7.17394	386.551
4.6013	34.6569	7.17398	386.586
4.6014	34.6568	7.17396	386.631
4.6016	34.6567	7.17393	386.69
4.6015	34.656	7.17399	386.746
4.6011	34.6579	7.17397	386.793
4.6009	34.6576	7.17403	386.835
4.6009	34.6571	7.17404	386.882
4.6013	34.6563	7.17401	386.932
4.6014	34.6566	7.17399	386.953
4.6016	34.6567	7.17393	387.038
4.6016	34.6571	7.17391	387.077
4.6018	34.6563	7.17392	387.107
4.6018	34.6572	7.17387	387.153
4.6017	34.6572	7.17389	387.194
4.6018	34.6567	7.17391	387.265
4.6017	34.6572	7.1739	387.305
4.6017	34.6572	7.1739	387.355
4.6019	34.657	7.17388	387.388
4.6018	34.6568	7.17391	387.429
4.6013	34.6572	7.17397	387.493
4.601	34.6572	7.17401	387.54
4.6009	34.657	7.17404	387.597
4.6011	34.6566	7.17404	387.627
4.6008	34.6567	7.17407	387.672
4.6009	34.6564	7.17407	387.706
4.6009	34.6568	7.17405	387.783
4.6011	34.6564	7.17405	387.804
4.6014	34.6566	7.17398	387.846
4.6015	34.6566	7.17397	387.907
4.6011	34.6573	7.17399	387.945
4.601	34.6571	7.17403	388.008
4.6009	34.657	7.17405	388.077
4.6009	34.6568	7.17406	388.106
4.6007	34.6571	7.17407	388.135
4.6008	34.6571	7.17407	388.197
4.6008	34.6566	7.17408	388.236
4.6009	34.6563	7.17409	388.303
4.6011	34.6562	7.17405	388.329
4.6013	34.6569	7.17398	388.36
4.6014	34.6568	7.17397	388.436
4.6016	34.6566	7.17395	388.481
4.6019	34.6562	7.17391	388.514
4.6021	34.6567	7.17385	388.556
4.6018	34.6574	7.17387	388.622
4.6017	34.657	7.17391	388.656
4.6014	34.657	7.17397	388.711
4.6014	34.6568	7.17397	388.723
4.6014	34.6569	7.17397	388.797
4.6012	34.657	7.17399	388.831
4.6011	34.6571	7.174	388.891
4.6013	34.6568	7.17399	388.949
4.6014	34.6563	7.17399	388.982
4.6018	34.6565	7.1739	389.008
4.6017	34.6568	7.17392	389.074
4.6019	34.6568	7.17389	389.129
4.6017	34.6574	7.1739	389.161
4.6015	34.6571	7.17395	389.207
4.6013	34.6571	7.17397	389.272
4.6013	34.6567	7.17399	389.312
4.6013	34.6565	7.174	389.361
4.6011	34.6573	7.174	389.386
4.6011	34.6567	7.17402	389.456
4.6011	34.6567	7.17403	389.487
4.6013	34.6566	7.17399	389.561
4.6014	34.6565	7.17399	389.579
4.6012	34.6571	7.17399	389.634
4.6011	34.6569	7.17402	389.671
4.6012	34.6567	7.17401	389.731
4.6013	34.6567	7.17398	389.784
4.6012	34.657	7.174	389.822
4.6012	34.6569	7.17401	389.834
4.6017	34.6565	7.17392	389.903
4.6021	34.6559	7.17388	389.972
4.6021	34.657	7.17383	389.997
4.602	34.6574	7.17384	390.037
4.6021	34.6567	7.17386	390.068
4.6023	34.6566	7.17382	390.146
4.6028	34.6565	7.17373	390.191
4.6024	34.6573	7.17376	390.238
4.6022	34.6576	7.17379	390.261
4.6021	34.6574	7.17381	390.318
4.6037	34.6554	7.17364	390.36
4.6068	34.6521	7.17326	390.412
4.6068	34.656	7.17306	390.445
4.6059	34.6594	7.17306	390.505
4.6075	34.6559	7.17295	390.54
4.6082	34.6554	7.17285	390.584
4.608	34.6581	7.17276	390.629
4.6111	34.6547	7.17238	390.708
4.6096	34.6566	7.17255	390.712
4.6113	34.6571	7.17223	390.775
4.6113	34.6587	7.17215	390.797
4.611	34.659	7.17219	390.866
4.6103	34.6595	7.17228	390.903
4.6089	34.6605	7.17248	390.934
4.6089	34.6589	7.17256	390.971
4.6109	34.6552	7.17239	391.063
4.6125	34.6548	7.17212	391.097
4.6122	34.6584	7.172	391.114
4.6105	34.6607	7.1722	391.192
4.6095	34.6602	7.17239	391.221
4.6105	34.6565	7.17239	391.262
4.6106	34.6576	7.17233	391.288
4.6118	34.6576	7.17212	391.344
4.6106	34.6595	7.17223	391.382
4.6075	34.6629	7.17262	391.434
4.6081	34.659	7.17269	391.48
4.6083	34.6565	7.17278	391.538
4.6069	34.6605	7.17284	391.583
4.6076	34.6581	7.17283	391.638
4.6074	34.6575	7.17288	391.68
4.6073	34.6586	7.17285	391.707
4.6087	34.6561	7.17272	391.759
4.6107	34.6546	7.17245	391.8
4.6119	34.6562	7.17216	391.859
4.6124	34.6578	7.172	391.872
4.6126	34.6585	7.17193	391.936
4.613	34.6585	7.17187	391.963
4.6135	34.6587	7.17176	392.044
4.613	34.6587	7.17185	392.047
4.6138	34.6583	7.17173	392.096
4.6141	34.6584	7.17168	392.143
4.6138	34.6595	7.17167	392.178
4.6131	34.6608	7.17174	392.245
4.6131	34.66	7.17177	392.282
4.6133	34.6588	7.1718	392.321
4.614	34.659	7.17167	392.352
4.6143	34.6586	7.17164	392.421
4.6137	34.6598	7.17167	392.493
4.6137	34.6595	7.17169	392.512
4.6128	34.6601	7.17182	392.573
4.6104	34.6631	7.1721	392.632
4.6091	34.6615	7.17241	392.645
4.6096	34.658	7.17248	392.687
4.6098	34.6578	7.17246	392.745
4.6087	34.66	7.17254	392.789
4.6075	34.6608	7.17272	392.833
4.6072	34.6591	7.17285	392.853
4.6076	34.6574	7.17285	392.889
4.6079	34.658	7.17277	392.959
4.6085	34.6575	7.17269	393.005
4.6086	34.6577	7.17266	393.047
4.6089	34.6577	7.17261	393.081
4.6088	34.6586	7.17259	393.12
4.6091	34.658	7.17257	393.187
4.609	34.6581	7.17258	393.214
4.6092	34.6584	7.17253	393.262
4.6092	34.6587	7.17253	393.308
4.6092	34.6583	7.17253	393.369
4.6091	34.6588	7.17254	393.396
4.6091	34.6584	7.17255	393.438
4.6091	34.6582	7.17255	393.474
4.6094	34.658	7.17251	393.53
4.6093	34.6588	7.17249	393.6
4.6099	34.6578	7.17245	393.61
4.6105	34.6576	7.17234	393.665
4.6125	34.656	7.17207	393.718
4.6116	34.6588	7.17209	393.739
4.6104	34.661	7.17221	393.784
4.6095	34.66	7.17241	393.804
4.6112	34.6573	7.17224	393.846
4.6135	34.6547	7.17195	393.911
4.6148	34.6564	7.17165	393.96
4.6156	34.6583	7.17143	393.973
4.6161	34.6588	7.17132	394.029
4.6165	34.6588	7.17124	394.076
4.616	34.66	7.17127	394.106
